# .PCD v0.7 - Point Cloud Data file format
VERSION 0.7
FIELDS x y z
SIZE 4 4 4
TYPE F F F
COUNT 1 1 1
WIDTH 1203
HEIGHT 1
VIEWPOINT 0 0 0 1 0 0 0
POINTS 1203
DATA ascii
0.7889999747 -4.559999943 0.07999999821
-0.7250000238 -3.733999968 0.09600000083
-0.2479999959 -3.864000082 0.09499999881
0.2549999952 -3.996999979 0.08600000292
0.7870000005 -4.103000164 0.09499999881
-0.6399999857 -3.375999928 0.1120000035
-0.1889999956 -3.493999958 0.1089999974
0.2820000052 -3.594000101 0.112999998
0.7829999924 -3.690999985 0.1140000001
-0.5649999976 -3.059999943 0.1199999973
-0.1379999965 -3.154999971 0.126000002
0.3109999895 -3.260999918 0.1120000035
0.7839999795 -3.332000017 0.1220000014
-0.4979999959 -2.756000042 0.1449999958
-0.09300000221 -2.839999914 0.1519999951
0.3370000124 -2.950000048 0.1180000007
0.7829999924 -2.999000072 0.1350000054
-0.4379999936 -2.496999979 0.1449999958
-0.04800000042 -2.584000111 0.1379999965
0.3600000143 -2.657000065 0.1330000013
0.7829999924 -2.696000099 0.150000006
-0.3819999993 -2.25999999 0.1369999945
-0.009999999776 -2.316999912 0.1599999964
0.3810000122 -2.394000053 0.1369999945
0.7950000167 -2.437000036 0.1379999965
-0.3319999874 -2.020999908 0.1560000032
0.02600000054 -2.08100009 0.1630000025
0.4050000012 -2.150000095 0.1369999945
0.8000000119 -2.180999994 0.1420000046
-0.3039999902 -1.45599997 0.7549999952
0.06199999899 -1.866999984 0.1529999971
0.4230000079 -1.912999988 0.150000006
0.7940000296 -1.919999957 0.1800000072
-0.3059999943 -0.8769999743 1.547000051
-0.01799999923 -1.256000042 0.8980000019
0.4410000145 -1.68599999 0.1650000066
0.8090000153 -1.708999991 0.1599999964
-0.2829999924 -0.7649999857 1.547000051
0.1230000034 -1.44599998 0.1689999998
0.4569999874 -1.470000029 0.1809999943
-0.2549999952 -0.6850000024 1.478000045
0.1509999931 -1.246999979 0.1770000011
0.4779999852 -1.273000002 0.173999995
-0.1289999932 -1.008000016 0.2169999927
0.173999995 -1.046000004 0.2109999955
0.4959999919 -1.074000001 0.1829999983
-6.710999966 -25.66200066 -0.3910000026
-4.502999783 -28.13299942 -0.4199999869
-1.965000033 -31.77099991 -0.4440000057
-4.72300005 -18.48200035 -0.2800000012
-2.996000051 -19.53199959 -0.2280000001
-1.161999941 -21.43199921 -0.2529999912
1.019000053 -23.54400063 -0.201000005
-3.522000074 -14.07400036 -0.1330000013
-2.198999882 -15.00199986 -0.1449999958
-0.7549999952 -16.37599945 -0.2039999962
0.9240000248 -17.48399925 -0.1350000054
-2.825000048 -11.5539999 -0.1099999994
-1.700000048 -12.14599991 -0.09700000286
-0.4959999919 -13.07999992 -0.1420000046
0.8809999824 -14.0170002 -0.1369999945
-2.319999933 -9.68900013 -0.06700000167
-1.353999972 -10.16899967 -0.06400000304
-0.3199999928 -10.84700012 -0.1000000015
0.8429999948 -11.52600002 -0.1000000015
-1.952999949 -8.333000183 -0.04500000179
-1.100000024 -8.722999573 -0.04600000009
-0.1920000017 -9.166999817 -0.04899999872
0.8180000186 -9.751000404 -0.07699999958
-1.659999967 -7.231999874 -0.007000000216
-0.8999999762 -7.532999992 0.002000000095
-0.09399999678 -7.90899992 -0.0120000001
0.7919999957 -8.321000099 -0.02300000004
-1.434000015 -6.375999928 0.01499999966
-0.7440000176 -6.638999939 0.01700000092
-0.01700000092 -6.926000118 0.0120000001
0.7749999762 -7.237999916 0.01099999994
-1.246999979 -5.653999805 0.04300000146
-0.6179999709 -5.894000053 0.03299999982
0.04800000042 -6.125999928 0.03500000015
0.7659999728 -6.386000156 0.02899999917
-1.095000029 -5.06799984 0.0549999997
-0.5109999776 -5.243000031 0.06499999762
0.1019999981 -5.47300005 0.04399999976
0.7609999776 -5.677000046 0.04500000179
-0.9629999995 -4.552999973 0.07299999893
-0.4210000038 -4.736000061 0.06199999899
0.1459999979 -4.895999908 0.06700000167
0.7540000081 -5.063000202 0.06599999964
-0.8519999981 -4.110000134 0.08500000089
-0.3449999988 -4.272999763 0.07500000298
0.1860000044 -4.40899992 0.07699999958
0.7519999743 -4.546000004 0.07900000364
-0.753000021 -3.717000008 0.09799999744
-0.27700001 -3.854000092 0.09200000018
0.224999994 -3.99000001 0.08100000024
0.753000021 -4.090000153 0.09499999881
-0.6669999957 -3.369999886 0.1049999967
-0.2169999927 -3.477999926 0.1120000035
0.2520000041 -3.582000017 0.112999998
0.7519999743 -3.680999994 0.112999998
-0.5899999738 -3.049000025 0.1190000027
-0.1650000066 -3.138000011 0.1330000013
0.2829999924 -3.25 0.112999998
0.7519999743 -3.316999912 0.1270000041
-0.5220000148 -2.743000031 0.1469999999
-0.1159999967 -2.836999893 0.1449999958
0.3109999895 -2.944000006 0.1150000021
0.7509999871 -2.980999947 0.1459999979
-0.4600000083 -2.486000061 0.1459999979
-0.0700000003 -2.578999996 0.1340000033
0.3350000083 -2.648999929 0.1330000013
0.7559999824 -2.686000109 0.1539999992
-0.4029999971 -2.257999897 0.1289999932
-0.03200000152 -2.309000015 0.1609999985
0.3580000103 -2.387000084 0.1360000074
0.7670000196 -2.424000025 0.1480000019
-0.351000011 -2.013000011 0.1560000032
0.00400000019 -2.068000078 0.1720000058
0.3819999993 -2.14199996 0.1400000006
0.7760000229 -2.174000025 0.1449999958
-0.3179999888 -1.472000003 0.7170000076
0.04199999943 -1.85800004 0.1580000073
0.4029999971 -1.907999992 0.1490000039
0.7779999971 -1.927000046 0.1630000025
-0.3170000017 -0.8640000224 1.565000057
-0.03299999982 -1.25 0.9010000229
0.4230000079 -1.684999943 0.1589999944
0.7829999924 -1.697000027 0.175999999
-0.2919999957 -0.7620000243 1.547000051
0.1070000008 -1.442999959 0.1630000025
0.4399999976 -1.468999982 0.1770000011
-0.2639999986 -0.6850000024 1.470999956
0.1350000054 -1.241000056 0.1800000072
0.4629999995 -1.271000028 0.1710000038
-0.1439999938 -1.001999974 0.2199999988
0.1589999944 -1.042999983 0.2060000002
0.4810000062 -1.072000027 0.1809999943
-11.55300045 -42.20700073 -0.7360000014
-6.797999859 -25.3920002 -0.3860000074
-4.625 -27.86499977 -0.425999999
-4.820000172 -18.41399956 -0.2930000126
-3.095999956 -19.4260006 -0.2389999926
-1.281000018 -21.33300018 -0.2730000019
0.8849999905 -23.53000069 -0.2440000027
-3.59100008 -13.98900032 -0.1340000033
-2.290999889 -15.01399994 -0.173999995
-0.84799999 -16.25600052 -0.2070000023
0.8180000186 -17.42200089 -0.1570000052
-2.891000032 -11.51500034 -0.1180000007
-1.76699996 -12.08300018 -0.1010000035
-0.5720000267 -12.93599987 -0.1280000061
0.773999989 -13.72999954 -0.09399999678
-2.380000114 -9.670999527 -0.07800000161
-1.409000039 -10.07499981 -0.05200000107
-0.3860000074 -10.76299953 -0.09499999881
0.7609999776 -11.4090004 -0.08799999952
-1.998000026 -8.279000282 -0.0390000008
-1.15199995 -8.682999611 -0.04800000042
-0.25 -9.102000237 -0.04399999976
0.7379999757 -9.585000038 -0.0390000008
-1.703999996 -7.199999809 -0.007000000216
-0.9480000138 -7.506999969 -0.003000000026
-0.1449999958 -7.888999939 -0.02099999972
0.7289999723 -8.246999741 -0.01099999994
-1.47300005 -6.346000195 0.01600000076
-0.7870000005 -6.624000072 0.009999999776
-0.06300000101 -6.907000065 0.004999999888
0.7220000029 -7.197999954 0.01300000027
-1.281000018 -5.614999771 0.05200000107
-0.6570000052 -5.863999844 0.03599999845
0.00400000019 -6.083000183 0.04399999976
0.7189999819 -6.360000134 0.02800000086
-1.128999949 -5.050000191 0.0540000014
-0.5479999781 -5.221000195 0.06599999964
0.06199999899 -5.447999954 0.04600000009
0.7160000205 -5.645999908 0.04899999872
-0.9940000176 -4.532999992 0.07500000298
-0.4550000131 -4.710999966 0.06599999964
0.1099999994 -4.882999897 0.06300000101
0.7179999948 -5.063000202 0.0540000014
-0.8820000291 -4.099999905 0.07999999821
-0.3770000041 -4.256999969 0.07500000298
0.1509999931 -4.388999939 0.08100000024
0.7160000205 -4.531000137 0.07800000161
-0.7810000181 -3.698999882 0.1010000035
-0.3070000112 -3.835000038 0.09600000083
0.1930000037 -3.979000092 0.07900000364
0.7179999948 -4.076000214 0.09600000083
-0.6940000057 -3.35800004 0.1049999967
-0.2450000048 -3.46600008 0.1120000035
0.2259999961 -3.586999893 0.09899999946
0.7189999819 -3.66899991 0.1150000021
-0.6140000224 -3.032000065 0.125
-0.1899999976 -3.132999897 0.126000002
0.2560000122 -3.240999937 0.1120000035
0.7250000238 -3.315000057 0.1199999973
-0.5450000167 -2.73300004 0.1469999999
-0.1410000026 -2.826999903 0.1449999958
0.2849999964 -2.936000109 0.1150000021
0.72299999 -2.970000029 0.1490000039
-0.4819999933 -2.479000092 0.1430000067
-0.09399999678 -2.565999985 0.1389999986
0.3120000064 -2.644999981 0.1280000061
0.7369999886 -2.698999882 0.1319999993
-0.423999995 -2.246000051 0.1319999993
-0.05299999937 -2.305000067 0.1560000032
0.3350000083 -2.381000042 0.1360000074
0.746999979 -2.428999901 0.1340000033
-0.3709999919 -2.003000021 0.1589999944
-0.01600000076 -2.062999964 0.1700000018
0.3619999886 -2.140000105 0.1340000033
0.7509999871 -2.165999889 0.150000006
-0.3330000043 -1.48300004 0.6880000234
-0.06899999827 -1.425999999 0.8679999709
0.3829999864 -1.902999997 0.1480000019
0.7599999905 -1.92900002 0.1550000012
-0.3249999881 -0.8790000081 1.529000044
-0.04699999839 -1.245000005 0.9010000229
0.4029999971 -1.677999973 0.1640000045
-0.300999999 -0.7590000033 1.547000051
0.07800000161 -1.40199995 0.2419999987
0.423999995 -1.468000054 0.1689999998
0.7749999762 -1.481999993 0.172999993
-0.2730000019 -0.6809999943 1.470999956
0.1190000027 -1.238999963 0.173999995
0.4460000098 -1.268000007 0.1700000018
-0.1790000051 -0.9010000229 0.5019999743
0.150000006 -1.050999999 0.172999993
0.4650000036 -1.069000006 0.1809999943
0.8019999862 -1.075999975 0.1700000018
-6.889999866 -25.15299988 -0.3840000033
-4.751999855 -27.64800072 -0.4379999936
-2.270999908 -30.9470005 -0.4499999881
-4.896999836 -18.26199913 -0.2899999917
-3.201999903 -19.36700058 -0.2590000033
-1.39199996 -21.09300041 -0.2689999938
0.7440000176 -23.38500023 -0.2669999897
-3.664000034 -13.92300034 -0.1389999986
-2.358999968 -14.84799957 -0.1599999964
-0.9340000153 -15.99400043 -0.1790000051
0.7089999914 -17.29000092 -0.1640000045
-2.946000099 -11.43099976 -0.1120000035
-1.833999991 -12.0170002 -0.1030000001
-0.6470000148 -12.79899979 -0.1159999967
0.6819999814 -13.60299969 -0.08900000155
-2.427999973 -9.597000122 -0.0700000003
-1.468999982 -10.04500008 -0.05999999866
-0.4519999921 -10.67800045 -0.08900000155
0.6869999766 -11.3579998 -0.09600000083
-2.04399991 -8.227000237 -0.03400000185
-1.202000022 -8.618000031 -0.03999999911
-0.3079999983 -9.062999725 -0.04800000042
0.6740000248 -9.543999672 -0.04500000179
-1.748999953 -7.173999786 -0.01099999994
-0.9950000048 -7.477000237 -0.004999999888
-0.1959999949 -7.859000206 -0.02400000021
0.6750000119 -8.239999771 -0.02500000037
-1.513000011 -6.315999985 0.01700000092
-0.8299999833 -6.597000122 0.008999999613
-0.1099999994 -6.880000114 0.003000000026
0.6679999828 -7.153999805 0.01799999923
-1.317999959 -5.592999935 0.05099999905
-0.6970000267 -5.843999863 0.03400000185
-0.03799999878 -6.071000099 0.03700000048
0.6710000038 -6.334000111 0.0270000007
-1.162999988 -5.025000095 0.05600000173
-0.5839999914 -5.197000027 0.0680000037
0.02199999988 -5.423999786 0.04699999839
0.6690000296 -5.600999832 0.06300000101
-1.02699995 -4.519999981 0.0700000003
-0.4889999926 -4.686999798 0.07100000232
0.07299999893 -4.853000164 0.07100000232
0.6769999862 -5.038000107 0.05799999833
-0.9110000134 -4.076000214 0.08600000292
-0.4079999924 -4.238999844 0.07699999958
0.1180000007 -4.373000145 0.08100000024
0.6779999733 -4.513000011 0.07999999821
-0.8090000153 -3.684999943 0.1010000035
-0.3359999955 -3.815999985 0.1010000035
0.1609999985 -3.960000038 0.08299999684
0.6840000153 -4.063000202 0.09600000083
-0.7200000286 -3.344000101 0.1059999987
-0.2730000019 -3.451999903 0.1140000001
0.199000001 -3.595000029 0.08100000024
0.6880000234 -3.657000065 0.1150000021
-0.6399999857 -3.029000044 0.1159999967
-0.2160000056 -3.121000051 0.1280000061
0.2280000001 -3.229000092 0.1140000001
0.6980000138 -3.312999964 0.112999998
-0.5680000186 -2.721999884 0.1469999999
-0.1650000066 -2.821000099 0.1410000026
0.2599999905 -2.930000067 0.1120000035
0.6980000138 -2.970000029 0.1410000026
-0.503000021 -2.46600008 0.1480000019
-0.1180000007 -2.553999901 0.1430000067
0.2890000045 -2.642999887 0.1220000014
0.7129999995 -2.697000027 0.126000002
-0.4449999928 -2.232000113 0.1410000026
-0.07400000095 -2.302000046 0.1490000039
0.3129999936 -2.375 0.1350000054
0.7250000238 -2.428999901 0.1270000041
-0.3899999857 -1.988999963 0.1679999977
-0.03500000015 -2.061000109 0.1630000025
0.3389999866 -2.130000114 0.1410000026
0.7289999723 -2.164000034 0.1459999979
-0.3470000029 -1.542000055 0.5749999881
-0.09099999815 -1.388000011 0.9240000248
0.3619999886 -1.898000002 0.1490000039
0.7360000014 -1.919999957 0.1630000025
-0.3339999914 -0.8920000196 1.496000051
-0.05999999866 -1.243000031 0.8970000148
0.3819999993 -1.669999957 0.1689999998
0.7390000224 -1.68599999 0.1840000004
-0.3109999895 -0.7540000081 1.549000025
-0.02400000021 -1.121999979 0.8259999752
0.4070000052 -1.465999961 0.1669999957
0.7599999905 -1.48300004 0.1650000066
-0.2630000114 -0.8119999766 1.129999995
0.1019999981 -1.231999993 0.1809999943
0.4289999902 -1.264000058 0.1710000038
0.7710000277 -1.274999976 0.1689999998
-0.2140000015 -0.7910000086 0.8140000105
0.1340000033 -1.04400003 0.1819999963
0.451000005 -1.069000006 0.174999997
0.7839999795 -1.072999954 0.174999997
-6.978000164 -24.90699959 -0.3799999952
-4.857999802 -27.31299973 -0.4329999983
-2.415999889 -30.51199913 -0.4480000138
0.6449999809 -35.86999893 -0.5310000181
-4.915999889 -17.88899994 -0.2409999967
-3.279000044 -19.11499977 -0.2430000007
-1.480000019 -20.46100044 -0.1969999969
0.6110000014 -23.36100006 -0.3070000112
-3.729000092 -13.82499981 -0.1360000074
-2.427999973 -14.6960001 -0.1490000039
-1.008000016 -15.48799992 -0.09600000083
0.5970000029 -17.09700012 -0.1580000073
-3.003000021 -11.35299969 -0.1070000008
-1.904000044 -11.97700024 -0.112999998
-0.7220000029 -12.70499992 -0.1140000001
0.5950000286 -13.51200008 -0.09300000221
-2.483999968 -9.562000275 -0.07500000298
-1.529000044 -10.01200008 -0.0680000037
-0.5149999857 -10.44999981 -0.03599999845
0.6039999723 -11.20400047 -0.07299999893
-2.088999987 -8.175000191 -0.02899999917
-1.253000021 -8.56799984 -0.03700000048
-0.3650000095 -9.012999535 -0.04800000042
0.6110000014 -9.510000229 -0.05299999937
-1.791000009 -7.135000229 -0.00800000038
-1.042000055 -7.446000099 -0.007000000216
-0.2479999959 -7.824999809 -0.02600000054
0.6110000014 -8.147999763 -0.006000000052
-1.550999999 -6.282000065 0.02099999972
-0.8730000257 -6.574999809 0.004999999888
-0.1560000032 -6.850999832 0.002000000095
0.6200000048 -7.138999939 0.008999999613
-1.356999993 -5.583000183 0.04300000146
-0.7350000143 -5.809000015 0.0390000008
-0.07999999821 -6.050000191 0.03400000185
0.625 -6.306000233 0.0270000007
-1.19599998 -5.001999855 0.05799999833
-0.6200000048 -5.18200016 0.06499999762
-0.01700000092 -5.40199995 0.04800000042
0.6269999743 -5.585000038 0.05900000036
-1.059000015 -4.502999783 0.0700000003
-0.5220000148 -4.679999828 0.06300000101
0.03599999845 -4.831999779 0.0719999969
0.6380000114 -5.020999908 0.05700000003
-0.9409999847 -4.06099987 0.08500000089
-0.4390000105 -4.22300005 0.07599999756
0.08399999887 -4.356999874 0.08100000024
0.6409999728 -4.492000103 0.08399999887
-0.8360000253 -3.667999983 0.1030000001
-0.3650000095 -3.805999994 0.09700000286
0.1299999952 -3.950000048 0.07999999821
0.6499999762 -4.047999859 0.09700000286
-0.7459999919 -3.33100009 0.1049999967
-0.3000000119 -3.437999964 0.1150000021
0.1659999937 -3.558000088 0.1040000021
0.6579999924 -3.654000044 0.1080000028
-0.6650000215 -3.020999908 0.1120000035
-0.2419999987 -3.111000061 0.1270000041
0.199000001 -3.213999987 0.1180000007
0.6679999828 -3.302999973 0.1140000001
-0.5910000205 -2.719000101 0.1389999986
-0.1889999956 -2.813999891 0.1379999965
0.2329999954 -2.917000055 0.1159999967
0.6729999781 -2.969000101 0.1340000033
-0.5249999762 -2.460000038 0.1439999938
-0.1400000006 -2.546999931 0.1410000026
0.2619999945 -2.627000093 0.1319999993
0.6850000024 -2.684000015 0.1330000013
-0.4659999907 -2.226000071 0.1369999945
-0.09499999881 -2.301000118 0.1410000026
0.2899999917 -2.367000103 0.1369999945
0.7009999752 -2.423000097 0.1270000041
-0.4099999964 -1.981999993 0.1669999957
-0.0549999997 -2.056999922 0.1589999944
0.3160000145 -2.118999958 0.1469999999
0.7070000172 -2.161000013 0.1439999938
-0.3589999974 -1.769000053 0.1700000018
-0.1059999987 -1.38499999 0.9210000038
0.3409999907 -1.889999986 0.1529999971
0.7120000124 -1.912999988 0.1679999977
-0.3440000117 -0.9039999843 1.463999987
-0.07400000095 -1.238999963 0.8970000148
0.3610000014 -1.661000013 0.1790000051
0.72299999 -1.687999964 0.173999995
-0.3199999928 -0.753000021 1.542999983
-0.03799999878 -1.11500001 0.8330000043
-0.2720000148 -0.82099998 1.09800005
0.08500000089 -1.223999977 0.1889999956
0.4129999876 -1.263000011 0.1679999977
-0.2259999961 -0.7860000134 0.8180000186
0.1220000014 -1.047000051 0.1620000005
0.4370000064 -1.067999959 0.1679999977
0.7659999728 -1.070000052 0.1790000051
-7.056000233 -24.63100052 -0.3709999919
-4.407000065 -23.70800018 0.03099999949
-4.978000164 -17.69499969 -0.2280000001
-3.336999893 -18.76000023 -0.2060000002
-1.583999991 -20.2310009 -0.1920000017
0.4390000105 -22.30599976 -0.1850000024
-3.790999889 -13.72000027 -0.1309999973
-2.506999969 -14.61999989 -0.1550000012
-1.095000029 -15.39700031 -0.1030000001
0.4869999886 -16.88500023 -0.1480000019
-3.059000015 -11.27799988 -0.1040000021
-1.965999961 -11.88700008 -0.1080000028
-0.7960000038 -12.64500046 -0.1209999993
0.5090000033 -13.43500042 -0.1000000015
-2.523999929 -9.454999924 -0.0540000014
-1.587000012 -9.965999603 -0.07100000232
-0.5789999962 -10.41399956 -0.04500000179
0.5289999843 -11.1260004 -0.0719999969
-2.135999918 -8.137000084 -0.02999999933
-1.302999973 -8.517999649 -0.03500000015
-0.4210000038 -8.949000359 -0.04199999943
0.5410000086 -9.404999733 -0.03500000015
-1.83099997 -7.086999893 -0.001000000047
-1.088000059 -7.413000107 -0.00800000038
-0.298999995 -7.767000198 -0.01799999923
0.55400002 -8.100000381 -0.003000000026
-1.590999961 -6.256000042 0.01999999955
-0.9150000215 -6.532000065 0.0120000001
-0.2029999942 -6.800000191 0.0120000001
0.5690000057 -7.111000061 0.006000000052
-1.394000053 -5.565999985 0.0390000008
-0.7730000019 -5.771999836 0.04699999839
-0.1220000014 -6.020999908 0.03599999845
0.5770000219 -6.271999836 0.03099999949
-1.230000019 -4.981999874 0.05700000003
-0.6560000181 -5.165999889 0.06100000069
-0.05600000173 -5.373000145 0.05200000107
0.5889999866 -5.584000111 0.04600000009
-1.088999987 -4.479000092 0.07400000095
-0.5559999943 -4.671000004 0.05600000173
0.001000000047 -4.81099987 0.07400000095
0.5989999771 -5 0.05799999833
-0.9700000286 -4.046000004 0.08399999887
-0.4709999859 -4.209000111 0.07500000298
0.05099999905 -4.343999863 0.07900000364
0.6060000062 -4.480999947 0.08100000024
-0.8640000224 -3.654999971 0.1019999981
-0.3950000107 -3.798000097 0.09300000221
0.09799999744 -3.930999994 0.08500000089
0.6169999838 -4.03399992 0.09799999744
-0.7720000148 -3.315000057 0.1080000028
-0.3269999921 -3.426000118 0.1150000021
0.1379999965 -3.553999901 0.09700000286
0.6290000081 -3.651000023 0.1019999981
-0.6890000105 -3.00999999 0.1110000014
-0.2669999897 -3.098999977 0.1280000061
0.1710000038 -3.200000048 0.1220000014
0.6370000243 -3.289000034 0.1180000007
-0.6150000095 -2.709000111 0.1379999965
-0.2129999995 -2.805999994 0.1369999945
0.2070000023 -2.907000065 0.1180000007
0.6439999938 -2.957000017 0.1379999965
-0.5479999781 -2.459000111 0.1319999993
-0.1630000025 -2.538000107 0.1420000046
0.2370000035 -2.614000082 0.1379999965
0.6560000181 -2.66899991 0.1430000067
-0.4860000014 -2.221999884 0.1299999952
-0.1169999987 -2.289999962 0.1439999938
0.2669999897 -2.359999895 0.1369999945
0.6750000119 -2.413000107 0.1319999993
-0.4289999902 -1.981999993 0.1550000012
-0.07599999756 -2.048000097 0.1609999985
0.2949999869 -2.115999937 0.1439999938
0.6840000153 -2.155999899 0.1449999958
-0.3770000041 -1.758999944 0.173999995
-0.1199999973 -1.381000042 0.9200000167
0.3210000098 -1.886000037 0.1509999931
0.6980000138 -1.921000004 0.1480000019
-0.3540000021 -0.9049999714 1.453999996
-0.08799999952 -1.233999968 0.8980000019
0.3449999988 -1.664000034 0.1650000066
0.7080000043 -1.694000006 0.1589999944
-0.3289999962 -0.7519999743 1.537999988
-0.05299999937 -1.106999993 0.8399999738
0.3720000088 -1.460000038 0.1630000025
0.7250000238 -1.481999993 0.1560000032
-0.2820000052 -0.8230000138 1.083999991
0.06899999827 -1.218999982 0.1899999976
0.3959999979 -1.25999999 0.1669999957
0.7300000191 -1.264000058 0.1860000044
-0.2380000055 -0.7789999843 0.8249999881
0.1080000028 -1.044999957 0.1560000032
0.4219999909 -1.067000031 0.1650000066
0.7519999743 -1.07099998 0.1720000058
-7.184000015 -24.54800034 -0.3910000026
-4.53000021 -23.61899948 0.008999999613
-2.65899992 -29.20700073 -0.3819999993
-5.058000088 -17.58099937 -0.2300000042
-3.436000109 -18.67900085 -0.2199999988
-1.684000015 -19.9659996 -0.1800000072
0.3219999969 -22.60199928 -0.273999989
-3.868999958 -13.68099976 -0.1430000067
-2.582999945 -14.53499985 -0.1589999944
-1.182999969 -15.34399986 -0.1190000027
0.3829999864 -16.77300072 -0.1570000052
-3.117000103 -11.2130003 -0.1030000001
-2.029000044 -11.8039999 -0.1049999967
-0.8700000048 -12.57900047 -0.1270000041
0.4269999862 -13.39500046 -0.1159999967
-2.578000069 -9.418000221 -0.05799999833
-1.643000007 -9.907999992 -0.0700000003
-0.6420000196 -10.38399982 -0.0549999997
0.4499999881 -10.98200035 -0.05000000075
-2.184999943 -8.105999947 -0.03299999982
-1.355000019 -8.487999916 -0.0390000008
-0.4769999981 -8.901000023 -0.04199999943
0.4740000069 -9.312999725 -0.02199999988
-1.868999958 -7.034999847 0.008999999613
-1.133999944 -7.379000187 -0.00800000038
-0.3490000069 -7.71600008 -0.0120000001
0.4970000088 -8.057999611 -0.003000000026
-1.626999974 -6.215000153 0.0270000007
-0.9549999833 -6.487999916 0.01999999955
-0.2479999959 -6.774000168 0.009999999776
0.5170000196 -7.065999985 0.0120000001
-1.430999994 -5.544000149 0.03799999878
-0.8109999895 -5.749000072 0.04600000009
-0.1640000045 -5.998000145 0.03500000015
0.5320000052 -6.248000145 0.02899999917
-1.264000058 -4.965000153 0.0549999997
-0.6909999847 -5.135000229 0.0680000037
-0.09399999678 -5.360000134 0.04699999839
0.5479999781 -5.571000099 0.04100000113
-1.118999958 -4.449999809 0.08200000226
-0.5889999866 -4.632999897 0.07100000232
-0.03500000015 -4.791999817 0.07500000298
0.5580000281 -4.971000195 0.06599999964
-1 -4.031000137 0.08299999684
-0.5019999743 -4.18900013 0.07900000364
0.01799999923 -4.323999882 0.08200000226
0.5699999928 -4.462999821 0.08200000226
-0.8909999728 -3.638999939 0.1030000001
-0.423999995 -3.782999992 0.09300000221
0.06700000167 -3.915999889 0.08600000292
0.5830000043 -4.019999981 0.09899999946
-0.7969999909 -3.295000076 0.1150000021
-0.3540000021 -3.417000055 0.1120000035
0.1089999974 -3.54399991 0.09499999881
0.5989999771 -3.64199996 0.09899999946
-0.7129999995 -2.993999958 0.1159999967
-0.2930000126 -3.088999987 0.1270000041
0.1449999958 -3.191999912 0.1199999973
0.6079999804 -3.278000116 0.1199999973
-0.6370000243 -2.690000057 0.1480000019
-0.2370000035 -2.799999952 0.1319999993
0.1809999943 -2.894000053 0.1220000014
0.6169999838 -2.947999954 0.1389999986
-0.5690000057 -2.440000057 0.1439999938
-0.1850000024 -2.53399992 0.1350000054
0.2129999995 -2.607000113 0.1369999945
0.6290000081 -2.65899992 0.1469999999
-0.5070000291 -2.203999996 0.1430000067
-0.1379999965 -2.282999992 0.1439999938
0.2450000048 -2.355000019 0.1350000054
0.65200001 -2.410000086 0.1289999932
-0.449000001 -1.973999977 0.1539999992
-0.09600000083 -2.038000107 0.1659999937
0.273999989 -2.10800004 0.1459999979
0.6620000005 -2.151000023 0.1439999938
-0.3950000107 -1.75 0.1770000011
-0.1330000013 -1.386000037 0.90200001
0.3019999862 -1.883999944 0.1469999999
0.6750000119 -1.914999962 0.1519999951
-0.3639999926 -0.8949999809 1.467000008
-0.1019999981 -1.228999972 0.898999989
0.326000005 -1.657999992 0.1669999957
-0.3379999995 -0.7480000257 1.539000034
-0.06700000167 -1.100999951 0.8450000286
0.3569999933 -1.460999966 0.1529999971
0.7089999914 -1.483999968 0.1469999999
-0.2910000086 -0.8420000076 1.021999955
0.0540000014 -1.215999961 0.1860000044
0.3770000041 -1.251999974 0.1770000011
0.7129999995 -1.261999965 0.1850000024
-0.248999998 -0.7730000019 0.8289999962
0.09200000018 -1.039000034 0.1609999985
-0.1190000027 -0.5580000281 1.552000046
0.4050000012 -1.062000036 0.1689999998
0.7369999886 -1.07099998 0.1669999957
-7.198999882 -24.06699944 -0.34799999
-5.157000065 -26.32600021 -0.4120000005
-2.792000055 -28.82500076 -0.3799999952
-5.137000084 -17.46199989 -0.2300000042
-3.532000065 -18.58499908 -0.2310000062
-1.792999983 -19.87000084 -0.1969999969
0.1800000072 -22.10700035 -0.2360000014
-3.940000057 -13.61600018 -0.1469999999
-2.651000023 -14.40200043 -0.1509999931
-1.274000049 -15.34599972 -0.1469999999
0.2730000019 -16.4489994 -0.1209999993
-3.174999952 -11.14999962 -0.1019999981
-2.092999935 -11.73799992 -0.1070000008
-0.9399999976 -12.44400024 -0.112999998
0.3389999866 -13.26000023 -0.1070000008
-2.632999897 -9.380999565 -0.06199999899
-1.700000048 -9.857999802 -0.0719999969
-0.7039999962 -10.31099987 -0.05099999905
0.3860000074 -11.01399994 -0.08200000226
-2.230999947 -8.067000389 -0.03299999982
-1.402999997 -8.425000191 -0.03099999949
-0.5329999924 -8.850999832 -0.04100000113
0.4079999924 -9.227999687 -0.009999999776
-1.912999988 -7.012000084 0.004999999888
-1.17900002 -7.342999935 -0.00800000038
-0.398999989 -7.684999943 -0.01499999966
0.4420000017 -8.022999763 -0.006000000052
-1.666000009 -6.190000057 0.02600000054
-0.996999979 -6.464000225 0.01799999923
-0.2939999998 -6.748000145 0.007000000216
0.4609999955 -6.986999989 0.03400000185
-1.467000008 -5.519999981 0.03799999878
-0.8500000238 -5.728000164 0.04399999976
-0.2049999982 -5.971000195 0.03599999845
0.4869999886 -6.231999874 0.02300000004
-1.294999957 -4.927999973 0.06599999964
-0.7269999981 -5.123000145 0.06199999899
-0.1309999973 -5.349999905 0.03999999911
0.5049999952 -5.539999962 0.04600000009
-1.149000049 -4.425000191 0.0869999975
-0.621999979 -4.625 0.06300000101
-0.0700000003 -4.781000137 0.0700000003
0.5180000067 -4.947000027 0.0700000003
-1.029000044 -4.011000156 0.08600000292
-0.5329999924 -4.179999828 0.07299999893
-0.01499999966 -4.306000233 0.08399999887
0.5329999924 -4.440999985 0.08799999952
-0.9190000296 -3.627000093 0.1019999981
-0.4530000091 -3.770999908 0.09200000018
0.03599999845 -3.903000116 0.08600000292
0.550999999 -4.010000229 0.09600000083
-0.8220000267 -3.280999899 0.1159999967
-0.3819999993 -3.407000065 0.1099999994
0.08100000024 -3.532999992 0.09499999881
0.5680000186 -3.630000114 0.1010000035
-0.7379999757 -2.986999989 0.1099999994
-0.3179999888 -3.076999903 0.1289999932
0.1190000027 -3.190000057 0.1120000035
0.5789999962 -3.269000053 0.1190000027
-0.6589999795 -2.674999952 0.1529999971
-0.2610000074 -2.789999962 0.1319999993
0.1550000012 -2.882999897 0.123999998
0.5889999866 -2.938999891 0.1400000006
-0.5899999738 -2.428999901 0.1449999958
-0.2080000043 -2.523000002 0.1379999965
0.1909999996 -2.605999947 0.1289999932
0.6060000062 -2.657000065 0.1410000026
-0.52700001 -2.186000109 0.1550000012
-0.1589999944 -2.27699995 0.1400000006
0.2220000029 -2.349999905 0.1330000013
0.621999979 -2.391000032 0.1459999979
-0.4679999948 -1.965000033 0.1550000012
-0.1169999987 -2.029000044 0.1689999998
0.2509999871 -2.09800005 0.1519999951
0.6389999986 -2.144999981 0.1459999979
-0.4129999876 -1.743999958 0.174999997
-0.1469999999 -1.381000042 0.9029999971
0.2820000052 -1.878999949 0.1459999979
0.6529999971 -1.909000039 0.1539999992
-0.375 -0.8799999952 1.488000035
-0.1159999967 -1.22300005 0.9010000229
0.3070000112 -1.652999997 0.1669999957
0.6740000248 -1.69599998 0.1420000046
-0.34799999 -0.7390000224 1.549999952
-0.08100000024 -1.095000029 0.8500000238
-0.3000000119 -0.8569999933 0.9739999771
0.03799999878 -1.212000012 0.1850000024
0.3600000143 -1.246999979 0.1809999943
0.69599998 -1.25999999 0.1850000024
-0.2599999905 -0.7699999809 0.824000001
-0.1199999973 -0.57099998 1.506000042
0.3880000114 -1.055999994 0.1780000031
0.7160000205 -1.065000057 0.1800000072
-7.323999882 -23.9829998 -0.3659999967
-5.265999794 -26.08099937 -0.4149999917
-2.950999975 -28.77499962 -0.4210000038
-5.202000141 -17.29899979 -0.2210000008
-3.625 -18.4810009 -0.2389999926
-1.904000044 -19.82699966 -0.2230000049
0.05099999905 -21.91900063 -0.2460000068
-4.006000042 -13.5340004 -0.1469999999
-2.72300005 -14.30300045 -0.1509999931
-1.361999989 -15.30099964 -0.1640000045
0.1770000011 -16.46500015 -0.1560000032
-3.233999968 -11.09599972 -0.1040000021
-2.154000044 -11.65999985 -0.1049999967
-1.011000037 -12.35900021 -0.1120000035
0.2579999864 -13.20400047 -0.1190000027
-2.686000109 -9.340000153 -0.06400000304
-1.753000021 -9.784999847 -0.06499999762
-0.7670000196 -10.28100014 -0.06199999899
0.3140000105 -10.94400024 -0.08200000226
-2.276000023 -8.020000458 -0.02899999917
-1.453999996 -8.392000198 -0.03500000015
-0.5879999995 -8.80300045 -0.03999999911
0.3490000069 -9.211999893 -0.02400000021
-1.95599997 -6.985000134 0.003000000026
-1.225999951 -7.321000099 -0.01300000027
-0.449000001 -7.640999794 -0.01300000027
0.3880000114 -7.993999958 -0.01099999994
-1.705000043 -6.164000034 0.02600000054
-1.039000034 -6.446000099 0.0120000001
-0.3389999866 -6.71999979 0.006000000052
0.4129999876 -6.972000122 0.02500000037
-1.501000047 -5.487999916 0.04399999976
-0.8880000114 -5.704999924 0.04399999976
-0.2460000068 -5.953999996 0.03099999949
0.4420000017 -6.210000038 0.02099999972
-1.330000043 -4.918000221 0.05900000036
-0.7620000243 -5.106999874 0.05900000036
-0.1689999998 -5.327000141 0.04100000113
0.4620000124 -5.506999969 0.05299999937
-1.17900002 -4.40199995 0.09099999815
-0.6539999843 -4.586999893 0.07800000161
-0.1049999967 -4.768000126 0.06700000167
0.4810000062 -4.931000233 0.06700000167
-1.057999969 -3.994999886 0.0869999975
-0.5630000234 -4.164000034 0.07400000095
-0.04800000042 -4.288000107 0.08600000292
0.4970000088 -4.426000118 0.08799999952
-0.94599998 -3.611000061 0.1030000001
-0.4810000062 -3.755000114 0.09300000221
0.004999999888 -3.881000042 0.09300000221
0.5189999938 -4.000999928 0.09300000221
-0.84799999 -3.269000053 0.1150000021
-0.4079999924 -3.398000002 0.1059999987
0.05099999905 -3.517999887 0.09799999744
0.5370000005 -3.621999979 0.09799999744
-0.7620000243 -2.970999956 0.1150000021
-0.3440000117 -3.062000036 0.1330000013
0.09300000221 -3.188999891 0.1030000001
0.550999999 -3.263999939 0.1150000021
-0.6819999814 -2.671000004 0.1449999958
-0.2849999964 -2.769999981 0.1439999938
0.1309999973 -2.878000021 0.1190000027
0.5649999976 -2.937999964 0.1319999993
-0.6119999886 -2.417000055 0.1480000019
-0.2310000062 -2.510999918 0.1420000046
0.1679999977 -2.601999998 0.123999998
0.5809999704 -2.65199995 0.1389999986
-0.5479999781 -2.187000036 0.1410000026
-0.1809999943 -2.26699996 0.1439999938
0.199000001 -2.338999987 0.1379999965
0.5989999771 -2.38499999 0.1459999979
-0.4869999886 -1.960000038 0.150000006
-0.1369999945 -2.022000074 0.1689999998
0.2310000062 -2.094000101 0.1490000039
0.6190000176 -2.147000074 0.1360000074
-0.4309999943 -1.74000001 0.1689999998
-0.1609999985 -1.378999949 0.8980000019
0.2599999905 -1.866999984 0.1560000032
0.6299999952 -1.90199995 0.1599999964
-0.3849999905 -0.8560000062 1.52699995
-0.1299999952 -1.220000029 0.8999999762
0.2890000045 -1.651000023 0.1630000025
-0.3569999933 -0.7329999804 1.555999994
-0.09499999881 -1.087000012 0.8579999804
0.3179999888 -1.44599998 0.1659999937
0.6669999957 -1.470999956 0.1630000025
-0.3100000024 -0.8709999919 0.9250000119
0.0120000001 -1.174000025 0.2660000026
0.3449999988 -1.246999979 0.1710000038
-0.2720000148 -0.7620000243 0.8370000124
-0.1280000061 -0.5699999928 1.501999974
0.3720000088 -1.052999973 0.1770000011
0.7030000091 -1.065999985 0.1720000058
-12.14799976 -38.36299896 -0.67900002
-7.414000034 -23.7840004 -0.3659999967
-5.309999943 -25.51300049 -0.3700000048
-3.095999956 -28.58499908 -0.4420000017
-5.25 -17.08399963 -0.201000005
-3.726000071 -18.4279995 -0.2579999864
-2.010999918 -19.72299957 -0.2380000055
-0.07699999958 -21.68300056 -0.2479999959
-4.072000027 -13.45499992 -0.1480000019
-2.79399991 -14.20400047 -0.150000006
-1.44599998 -15.19099998 -0.1659999937
0.07900000364 -16.38100052 -0.1689999998
-3.286999941 -11.0170002 -0.09799999744
-2.217000008 -11.59399986 -0.1049999967
-1.082999945 -12.29500008 -0.1169999987
0.173999995 -13.08399963 -0.112999998
-2.737999916 -9.295999527 -0.06499999762
-1.809000015 -9.73900032 -0.06700000167
-0.8299999833 -10.24800014 -0.0700000003
0.2440000027 -10.88899994 -0.0869999975
-2.322999954 -7.985000134 -0.03099999949
-1.501999974 -8.336999893 -0.02999999933
-0.6430000067 -8.758999825 -0.04100000113
0.2899999917 -9.184000015 -0.03299999982
-1.998999953 -6.954999924 0.002000000095
-1.268000007 -7.268000126 -0.004999999888
-0.4970000088 -7.574999809 0
0.3319999874 -7.947999954 -0.008999999613
-1.743999958 -6.137000084 0.02600000054
-1.08099997 -6.419000149 0.01099999994
-0.3829999864 -6.688000202 0.007000000216
0.3650000095 -6.947999954 0.02099999972
-1.536999941 -5.464000225 0.04399999976
-0.925999999 -5.679999828 0.04399999976
-0.2870000005 -5.925000191 0.03299999982
0.3970000148 -6.179999828 0.02300000004
-1.363000035 -4.899000168 0.05799999833
-0.7960000038 -5.078000069 0.06400000304
-0.2070000023 -5.300000191 0.04500000179
0.4180000126 -5.471000195 0.06100000069
-1.210000038 -4.383999825 0.09099999815
-0.6859999895 -4.568999767 0.07800000161
-0.1400000006 -4.747000217 0.06899999827
0.4440000057 -4.922999859 0.06100000069
-1.085999966 -3.976000071 0.08900000155
-0.5939999819 -4.137000084 0.08200000226
-0.07999999821 -4.28399992 0.07800000161
0.4620000124 -4.410999775 0.0869999975
-0.9710000157 -3.586999893 0.1120000035
-0.5099999905 -3.740999937 0.09399999678
-0.02500000037 -3.877000093 0.08500000089
0.4850000143 -3.98300004 0.09700000286
-0.8740000129 -3.259000063 0.112999998
-0.4350000024 -3.380000114 0.1120000035
0.02300000004 -3.505000114 0.09799999744
0.5059999824 -3.607000113 0.1010000035
-0.7860000134 -2.957999945 0.1169999987
-0.3689999878 -3.058000088 0.126000002
0.06599999964 -3.176000118 0.1049999967
0.5230000019 -3.255000114 0.1150000021
-0.7070000172 -2.674000025 0.1280000061
-0.3089999855 -2.766000032 0.1369999945
0.1059999987 -2.875 0.112999998
0.5410000086 -2.940999985 0.1209999993
-0.6330000162 -2.411000013 0.1430000067
-0.2529999912 -2.500999928 0.1439999938
0.1430000067 -2.588999987 0.1299999952
0.5569999814 -2.647000074 0.1369999945
-0.5680000186 -2.180000067 0.1379999965
-0.202000007 -2.256999969 0.1449999958
0.175999999 -2.328999996 0.1410000026
0.5770000219 -2.38499999 0.1389999986
-0.5070000291 -1.953999996 0.1459999979
-0.1560000032 -2.013999939 0.1689999998
0.2090000063 -2.085000038 0.1529999971
0.5970000029 -2.142999887 0.1340000033
-0.449000001 -1.730999947 0.1700000018
-0.1790000051 -1.356999993 0.925999999
0.2409999967 -1.863000035 0.1550000012
0.6110000014 -1.901000023 0.1550000012
-0.3950000107 -0.8529999852 1.524999976
-0.1439999938 -1.213999987 0.90200001
0.2709999979 -1.646000028 0.1640000045
-0.3659999967 -0.7350000143 1.542999983
-0.1089999974 -1.080000043 0.8640000224
0.300999999 -1.442999959 0.1640000045
-0.3210000098 -0.8759999871 0.8999999762
-0.00400000019 -1.16900003 0.2680000067
0.3310000002 -1.246999979 0.1630000025
0.6690000296 -1.266000032 0.1609999985
-0.2840000093 -0.7559999824 0.8420000076
-0.1369999945 -0.5680000186 1.501000047
0.3549999893 -1.047999978 0.1829999983
-12.44999981 -38.58399963 -0.7459999919
-7.513000011 -23.62299919 -0.3700000048
-5.426000118 -25.3390007 -0.3810000122
-3.252000093 -28.52099991 -0.4790000021
-0.5320000052 -31.8409996 -0.4420000017
-5.350999832 -17.05500031 -0.2189999968
-3.829999924 -18.38999939 -0.2779999971
-2.118999958 -19.65099907 -0.2579999864
-0.2039999962 -21.34399986 -0.2310000062
-4.144999981 -13.40299988 -0.1550000012
-2.861000061 -14.08399963 -0.1439999938
-1.524999976 -15.04800034 -0.1589999944
-0.01899999939 -16.27000046 -0.175999999
-3.34800005 -10.97099972 -0.1019999981
-2.275000095 -11.50199986 -0.09799999744
-1.149999976 -12.17599964 -0.1059999987
0.09200000018 -12.97799969 -0.1110000014
-2.770999908 -9.180999756 -0.03999999911
-1.860000014 -9.659999847 -0.05700000003
-0.8899999857 -10.17399979 -0.06599999964
0.173999995 -10.81999969 -0.0869999975
-2.365999937 -7.934000015 -0.02500000037
-1.549999952 -8.286000252 -0.02500000037
-0.6970000267 -8.718999863 -0.04399999976
0.2300000042 -9.145999908 -0.03799999878
-2.038000107 -6.913000107 0.007000000216
-1.312999964 -7.236999989 -0.006000000052
-0.5460000038 -7.541999817 -0.001000000047
0.2759999931 -7.876999855 0.00400000019
-1.784000039 -6.114999771 0.02300000004
-1.121000051 -6.387000084 0.01400000043
-0.4280000031 -6.660999775 0.004999999888
0.3140000105 -6.889999866 0.03400000185
-1.57099998 -5.436999798 0.04699999839
-0.9639999866 -5.660999775 0.04199999943
-0.3269999921 -5.894999981 0.03599999845
0.3529999852 -6.156000137 0.02099999972
-1.396000028 -4.875999928 0.05999999866
-0.8320000172 -5.061999798 0.06199999899
-0.2450000048 -5.28399992 0.04199999943
0.3729999959 -5.418000221 0.07999999821
-1.241000056 -4.368000031 0.08900000155
-0.7189999819 -4.554999828 0.07500000298
-0.174999997 -4.727000237 0.07100000232
0.4059999883 -4.899000168 0.06499999762
-1.113999963 -3.95600009 0.09200000018
-0.6240000129 -4.114999771 0.0869999975
-0.1120000035 -4.274000168 0.07299999893
0.425999999 -4.387000084 0.09300000221
-1 -3.579999924 0.1049999967
-0.5379999876 -3.729000092 0.09200000018
-0.0549999997 -3.865999937 0.08299999684
0.4530000091 -3.971999884 0.09499999881
-0.8999999762 -3.25 0.1080000028
-0.4620000124 -3.367000103 0.1120000035
-0.004999999888 -3.503999949 0.08900000155
0.4740000069 -3.589999914 0.1059999987
-0.8100000024 -2.946000099 0.1159999967
-0.3939999938 -3.038000107 0.1350000054
0.03799999878 -3.154000044 0.1169999987
0.4959999919 -3.249000072 0.1110000014
-0.7289999723 -2.664000034 0.1280000061
-0.3319999874 -2.760999918 0.1319999993
0.07900000364 -2.855000019 0.125
0.5130000114 -2.928999901 0.125
-0.6549999714 -2.405999899 0.1369999945
-0.2759999931 -2.492000103 0.1439999938
0.1199999973 -2.585000038 0.126000002
0.52700001 -2.627000093 0.1519999951
-0.5879999995 -2.167000055 0.1439999938
-0.2230000049 -2.252000093 0.1420000046
0.1539999992 -2.322999954 0.1400000006
0.5529999733 -2.377000093 0.1410000026
-0.5249999762 -1.940999985 0.1529999971
-0.1780000031 -1.993999958 0.1889999956
0.1889999956 -2.085000038 0.1439999938
0.5640000105 -2.111999989 0.1720000058
-0.4670000076 -1.723999977 0.1689999998
-0.1930000037 -1.351999998 0.925999999
0.2210000008 -1.85800004 0.1539999992
-0.4040000141 -0.8410000205 1.541000009
-0.1570000052 -1.210999966 0.8980000019
0.2529999912 -1.643000007 0.1599999964
0.6019999981 -1.662999988 0.1829999983
-0.3759999871 -0.726000011 1.55400002
-0.123999998 -1.065999985 0.8849999905
0.2840000093 -1.43900001 0.1640000045
0.6299999952 -1.465999961 0.1599999964
-0.3319999874 -0.8769999743 0.8840000033
-0.01999999955 -1.161000013 0.2759999931
-0.174999997 -0.6499999762 1.557000041
0.3140000105 -1.243000031 0.1630000025
0.6480000019 -1.258999944 0.1710000038
-0.2949999869 -0.75 0.8460000157
-0.1449999958 -0.5649999976 1.5
0.3409999907 -1.046000004 0.1800000072
0.6639999747 -1.054999948 0.1920000017
-7.579999924 -23.36000061 -0.3580000103
-5.546000004 -25.19499969 -0.3959999979
-3.309999943 -27.5340004 -0.3910000026
-0.7049999833 -31.41399956 -0.4480000138
-5.445000172 -17.00499916 -0.2319999933
-3.933000088 -18.34700012 -0.2980000079
-2.21600008 -19.45800018 -0.2549999952
-0.326000005 -21.18700027 -0.2430000007
-4.203000069 -13.30000019 -0.1480000019
-2.931999922 -13.99499989 -0.1439999938
-1.605000019 -14.93099976 -0.1580000073
-0.1159999967 -16.16399956 -0.1840000004
-3.404000044 -10.90699959 -0.1010000035
-2.326999903 -11.375 -0.07999999821
-1.218999982 -12.10499954 -0.1080000028
0.0120000001 -12.90999985 -0.1180000007
-2.825000048 -9.147999763 -0.04500000179
-1.916000009 -9.623999596 -0.06300000101
-0.9499999881 -10.11499977 -0.06499999762
0.1040000021 -10.73999977 -0.08299999684
-2.411000013 -7.895999908 -0.02400000021
-1.600000024 -8.25399971 -0.02899999917
-0.7509999871 -8.67800045 -0.04500000179
0.1700000018 -9.100999832 -0.03999999911
-2.082000017 -6.892000198 0.002000000095
-1.355999947 -7.188000202 0.002000000095
-0.5939999819 -7.514999866 -0.004999999888
0.2220000029 -7.835999966 0.00400000019
-1.820000052 -6.080999851 0.0270000007
-1.156999946 -6.320000172 0.03400000185
-0.4709999859 -6.605000019 0.01899999939
0.2660000026 -6.864999771 0.02999999933
-1.605999947 -5.412000179 0.04800000042
-1.001999974 -5.644000053 0.03799999878
-0.3680000007 -5.868000031 0.03799999878
0.3079999983 -6.126999855 0.02300000004
-1.427999973 -4.853000164 0.06199999899
-0.8659999967 -5.040999889 0.06199999899
-0.2820000052 -5.256000042 0.04600000009
0.3319999874 -5.389999866 0.08399999887
-1.271999955 -4.353000164 0.0869999975
-0.7509999871 -4.537000179 0.07500000298
-0.2090000063 -4.709000111 0.0700000003
0.3689999878 -4.888000011 0.05999999866
-1.144000053 -3.944999933 0.08799999952
-0.6529999971 -4.092000008 0.09300000221
-0.1449999958 -4.250999928 0.07900000364
0.3899999857 -4.368000031 0.09600000083
-1.026000023 -3.562999964 0.1070000008
-0.5669999719 -3.710999966 0.09499999881
-0.08500000089 -3.855999947 0.07999999821
0.4199999869 -3.957999945 0.09600000083
-0.9250000119 -3.23300004 0.1120000035
-0.4889999926 -3.349999905 0.1169999987
-0.03500000015 -3.474999905 0.1049999967
0.4440000057 -3.578000069 0.1070000008
-0.8339999914 -2.937000036 0.112999998
-0.4189999998 -3.039999962 0.1209999993
0.0120000001 -3.144999981 0.1159999967
0.4659999907 -3.236000061 0.1140000001
-0.7519999743 -2.654999971 0.126000002
-0.3560000062 -2.742000103 0.1410000026
0.0540000014 -2.845000029 0.126000002
0.4860000014 -2.91899991 0.1270000041
-0.6769999862 -2.397000074 0.1360000074
-0.2980000079 -2.480999947 0.1459999979
0.09600000083 -2.575999975 0.126000002
0.5070000291 -2.634000063 0.1360000074
-0.6079999804 -2.155999899 0.1459999979
-0.2440000027 -2.247999907 0.1360000074
0.1319999993 -2.316999912 0.1389999986
0.5289999843 -2.368999958 0.1439999938
-0.5440000296 -1.929999948 0.1570000052
-0.2380000055 -1.557000041 0.8519999981
0.1659999937 -2.069000006 0.1589999944
0.5410000086 -2.104000092 0.1770000011
-0.4860000014 -1.722000003 0.1599999964
-0.2070000023 -1.34800005 0.9240000248
0.201000005 -1.850999951 0.1560000032
-0.4140000045 -0.8330000043 1.549000025
-0.1710000038 -1.207000017 0.8960000277
-0.3849999905 -0.7300000191 1.534999967
-0.1369999945 -1.06099999 0.8849999905
0.2660000026 -1.432999969 0.1669999957
-0.3440000117 -0.8730000257 0.8809999824
-0.1790000051 -0.6620000005 1.521000028
0.2980000079 -1.241000056 0.1609999985
-0.3059999943 -0.7450000048 0.84799999
-0.1539999992 -0.5630000234 1.498999953
0.3249999881 -1.042999983 0.1800000072
0.6480000019 -1.054999948 0.1889999956
-7.311999798 -22.03499985 -0.175999999
-5.592000008 -24.70199966 -0.3580000103
-3.411999941 -27.04199982 -0.3670000136
-0.8650000095 -30.40600014 -0.3790000081
-5.53399992 -16.94000053 -0.2419999987
-3.999000072 -18.11499977 -0.2800000012
-2.325999975 -19.42499924 -0.2809999883
-0.4460000098 -20.76000023 -0.2090000063
-4.270999908 -13.2329998 -0.1509999931
-2.990999937 -13.84700012 -0.1299999952
-1.682999969 -14.80300045 -0.1539999992
-0.2129999995 -16 -0.1780000031
-3.470000029 -10.88300037 -0.1110000014
-2.388999939 -11.31799984 -0.08299999684
-1.287999988 -12.02600002 -0.1080000028
-0.06599999964 -12.875 -0.1330000013
-2.881999969 -9.126999855 -0.0540000014
-1.970000029 -9.57199955 -0.06300000101
-1.00999999 -10.05799961 -0.06599999964
0.03500000015 -10.67599964 -0.08500000089
-2.457000017 -7.861000061 -0.02500000037
-1.646000028 -8.197999954 -0.02300000004
-0.80400002 -8.63599968 -0.04699999839
0.1099999994 -9.05300045 -0.04100000113
-2.125999928 -6.869999886 -0.002000000095
-1.396999955 -7.138999939 0.008999999613
-0.6420000196 -7.462999821 0.002000000095
0.1689999998 -7.798999786 0.003000000026
-1.860000014 -6.059999943 0.02400000021
-1.200000048 -6.31099987 0.02400000021
-0.5149999857 -6.576000214 0.01799999923
0.2199999988 -6.854000092 0.01999999955
-1.639000058 -5.375999928 0.05600000173
-1.039000034 -5.617000103 0.03999999911
-0.4079999924 -5.84499979 0.03599999845
0.2619999945 -6.081999779 0.03299999982
-1.460000038 -4.828000069 0.06499999762
-0.8999999762 -5.011000156 0.0680000037
-0.3190000057 -5.230999947 0.04899999872
0.2939999998 -5.387000084 0.07299999893
-1.302999973 -4.335999966 0.0869999975
-0.7839999795 -4.526000023 0.0700000003
-0.2430000007 -4.696000099 0.06700000167
0.3330000043 -4.879000187 0.0540000014
-1.172999978 -3.931999922 0.08500000089
-0.6830000281 -4.076000214 0.09300000221
-0.1770000011 -4.228000164 0.08399999887
0.3580000103 -4.364999771 0.0869999975
-1.052999973 -3.549000025 0.1070000008
-0.5950000286 -3.694999933 0.09700000286
-0.1150000021 -3.84100008 0.08100000024
0.3889999986 -3.947999954 0.09300000221
-0.9499999881 -3.217000008 0.1150000021
-0.5149999857 -3.335999966 0.1190000027
-0.06300000101 -3.46600008 0.1019999981
0.4140000045 -3.569999933 0.1049999967
-0.8590000272 -2.927999973 0.1110000014
-0.4440000057 -3.025000095 0.125
-0.01400000043 -3.141000032 0.1089999974
0.4379999936 -3.229000092 0.1120000035
-0.773999989 -2.640000105 0.1299999952
-0.3790000081 -2.739000082 0.1340000033
0.02899999917 -2.829999924 0.1319999993
0.4600000083 -2.911999941 0.125
-0.6980000138 -2.38499999 0.1389999986
-0.3199999928 -2.467999935 0.1509999931
0.07299999893 -2.569999933 0.123999998
0.4810000062 -2.624000072 0.1400000006
-0.628000021 -2.144999981 0.1490000039
-0.2649999857 -2.234999895 0.1420000046
0.1089999974 -2.306999922 0.1420000046
0.5049999952 -2.362999916 0.1439999938
-0.5630000234 -1.91900003 0.1609999985
-0.2529999912 -1.55400002 0.8470000029
0.1449999958 -2.059999943 0.1620000005
0.5220000148 -2.107000113 0.1650000066
-0.5040000081 -1.715999961 0.1560000032
-0.2210000008 -1.343000054 0.9229999781
0.1809999943 -1.843000054 0.1589999944
0.5490000248 -1.888000011 0.1550000012
-0.423999995 -0.8450000286 1.51699996
-0.1860000044 -1.192000031 0.9169999957
0.07800000161 -1.248000026 0.8849999905
-0.3939999938 -0.7350000143 1.514999986
-0.150000006 -1.057999969 0.8849999905
-0.3600000143 -0.7409999967 1.218999982
-0.1879999936 -0.6589999795 1.519999981
0.2820000052 -1.236999989 0.1589999944
0.6179999709 -1.25999999 0.1580000073
-0.3170000017 -0.7429999709 0.8399999738
-0.1620000005 -0.5609999895 1.498000026
0.3070000112 -1.034000039 0.1959999949
0.6340000033 -1.05400002 0.1840000004
-7.443999767 -22.01399994 -0.199000001
-5.697000027 -24.50499916 -0.3630000055
-3.551000118 -26.90600014 -0.3910000026
-5.607999802 -16.82500076 -0.2409999967
-4.071000099 -17.93099976 -0.2700000107
-2.167000055 -16.82600021 0.175999999
-0.5630000234 -20.48699951 -0.199000001
-4.322000027 -13.11200047 -0.1389999986
-3.053999901 -13.72799969 -0.1230000034
-1.764999986 -14.72299957 -0.1609999985
-0.3070000112 -15.85599995 -0.175999999
-3.522000074 -10.81000042 -0.1059999987
-2.454999924 -11.28499985 -0.09300000221
-1.351999998 -11.91399956 -0.09799999744
-0.1490000039 -12.58500004 -0.07900000364
-2.934000015 -9.086999893 -0.0549999997
-2.017999887 -9.491000175 -0.05099999905
-1.067999959 -9.993000031 -0.06300000101
-0.03200000152 -10.60900021 -0.08399999887
-2.502000093 -7.822999954 -0.02500000037
-1.687000036 -8.118000031 -0.006000000052
-0.8569999933 -8.588999748 -0.04500000179
0.05099999905 -9 -0.03999999911
-2.167000055 -6.839000225 -0.002000000095
-1.440999985 -7.106999874 0.008999999613
-0.6899999976 -7.452000141 -0.008999999613
0.1169999987 -7.767000198 0
-1.901000023 -6.046999931 0.01700000092
-1.241000056 -6.289999962 0.02099999972
-0.5580000281 -6.558000088 0.01300000027
0.1720000058 -6.823999882 0.01999999955
-1.675999999 -5.362999916 0.05000000075
-1.074000001 -5.578999996 0.04800000042
-0.4480000138 -5.822999954 0.03500000015
0.2169999927 -6.045000076 0.0390000008
